ply
format ascii 1.0
element vertex 312
property float x
property float y
property float z
property float nx
property float ny
property float nz
property uchar diffuse_red
property uchar diffuse_green
property uchar diffuse_blue
property float quality
end_header
0.2017185389995575 0.51339602470397949 -2.2505087852478027 0.10438945889472961 -0.62578785419464111 0.77297645807266235 188 193 189 0.95980054140090942
0.21689131855964661 0.52569591999053955 -2.2482376098632812 -0.36579692363739014 -0.39293766021728516 0.84367799758911133 190 195 190 0.94935035705566406
0.24034875631332397 0.50057345628738403 -2.2415294647216797 -0.039008371531963348 -0.53555130958557129 0.84360122680664062 188 194 189 0.95281714200973511
0.25721624493598938 0.51671910285949707 -2.2420330047607422 -0.3827744722366333 -0.20487514138221741 0.90083837509155273 189 195 190 0.93289107084274292
0.27297422289848328 0.53814327716827393 -2.2603795528411865 0.6150469183921814 -0.35677099227905273 0.70315843820571899 189 195 191 0.95566666126251221
0.30754455924034119 0.53552049398422241 -2.2571220397949219 0.48772186040878296 -0.1943143904209137 0.85109889507293701 191 197 193 0.96632170677185059
0.32793509960174561 0.52582657337188721 -2.2594523429870605 -0.62322604656219482 -0.57071632146835327 0.53466999530792236 188 195 189 0.97358500957489014
0.3561534583568573 0.49406468868255615 -2.2337806224822998 -0.11208701133728027 0.0087904632091522217 0.9936596155166626 191 197 192 0.80745148658752441
0.34282490611076355 0.54552245140075684 -2.2600221633911133 -0.62854421138763428 -0.55151265859603882 0.54842120409011841 193 199 196 0.9279024600982666
0.4035746157169342 0.48537728190422058 -2.2240395545959473 -0.059043727815151215 -0.12378239631652832 0.99055123329162598 191 203 198 0.94211661815643311
0.38368123769760132 0.49648728966712952 -2.2324874401092529 -0.10605428367853165 -0.038761556148529053 0.99360454082489014 191 200 195 0.93445312976837158
0.42853525280952454 0.49090373516082764 -2.2258412837982178 -0.17010855674743652 -0.013037651777267456 0.98533904552459717 193 204 202 0.93873602151870728
0.46222111582756042 0.47933030128479004 -2.2112367153167725 0.48327988386154175 -0.87176811695098877 0.080379784107208252 203 210 211 0.91056132316589355
0.45470204949378967 0.4704355001449585 -2.2160828113555908 0.32956895232200623 -0.85696220397949219 0.39623254537582397 204 215 216 0.88460564613342285
0.48027175664901733 0.48574912548065186 -2.2225959300994873 0.42969200015068054 -0.8884090781211853 0.16153702139854431 210 219 221 0.85902959108352661
0.49829891324043274 0.49409180879592896 -2.2156293392181396 0.23077133297920227 -0.96369451284408569 0.13430356979370117 208 218 219 0.91422116756439209
0.51578867435455322 0.49844953417778015 -2.2273061275482178 0.12596447765827179 -0.91634100675582886 0.38006860017776489 211 221 221 0.93385976552963257
0.54154831171035767 0.49320462346076965 -2.2224857807159424 -0.27356714010238647 -0.33751493692398071 0.90069127082824707 214 225 226 0.956382155418396
0.56883883476257324 0.48286116123199463 -2.20782470703125 0.10341481864452362 -0.78974246978759766 0.60465872287750244 208 216 218 0.96365386247634888
0.59038931131362915 0.49997198581695557 -2.2210328578948975 0.28022736310958862 -0.10158929228782654 0.95454299449920654 208 219 220 0.94815897941589355
0.60682898759841919 0.51085788011550903 -2.2348067760467529 0.3967839777469635 -0.20372429490089417 0.89501893520355225 212 223 225 0.93985801935195923
0.72352522611618042 0.66163450479507446 -2.3350155353546143 -0.34998148679733276 -0.90537440776824951 -0.24043741822242737 194 201 203 0.97353267669677734
0.74456775188446045 0.64144539833068848 -2.3221442699432373 -0.35812437534332275 -0.89733010530471802 0.25796431303024292 187 190 195 0.97481268644332886
0.76078116893768311 0.63657701015472412 -2.3086614608764648 -0.3976823091506958 -0.84173643589019775 0.36514180898666382 94 85 91 0.97443670034408569
0.80290234088897705 0.61536145210266113 -2.3051037788391113 -0.27497744560241699 -0.92991286516189575 -0.24423235654830933 63 42 45 0.97666090726852417
0.79803401231765747 0.61898553371429443 -2.3095571994781494 -0.18477757275104523 -0.98277401924133301 0.0035392642021179199 67 49 53 0.95638167858123779
0.82417553663253784 0.61263519525527954 -2.2980301380157471 -0.22649399936199188 -0.91949284076690674 -0.32129943370819092 59 37 34 0.96887224912643433
0.85421746969223022 0.62960225343704224 -2.3119850158691406 -0.43243995308876038 -0.63552188873291016 0.63961523771286011 64 39 34 0.95656126737594604
0.87187665700912476 0.63012546300888062 -2.2984611988067627 -0.75234436988830566 -0.45598211884498596 0.47545573115348816 62 37 31 0.87608230113983154
-0.51801204681396484 0.44627410173416138 -2.2395405769348145 0.5463327169418335 -0.15883547067642212 0.82236969470977783 42 20 14 0.87631595134735107
-0.49797675013542175 0.45298081636428833 -2.2517249584197998 0.5097883939743042 -0.17687299847602844 0.84192144870758057 55 29 25 0.98626315593719482
-0.48610833287239075 0.47066235542297363 -2.2518312931060791 0.60025036334991455 -0.41026797890663147 0.68657100200653076 59 31 26 0.98369920253753662
-0.46920272707939148 0.47931411862373352 -2.2542178630828857 0.7094995379447937 -0.5316656231880188 0.46253889799118042 63 39 38 0.99081063270568848
-0.4556327760219574 0.48265308141708374 -2.2669987678527832 0.64831805229187012 -0.5751187801361084 0.49892091751098633 142 128 130 0.98763692378997803
-0.44066035747528076 0.49402791261672974 -2.2646248340606689 0.25834378600120544 -0.61450654268264771 0.74541282653808594 147 133 135 0.99016541242599487
-0.42531833052635193 0.49002939462661743 -2.2734682559967041 0.1078106090426445 -0.63484299182891846 0.76508253812789917 159 153 153 0.98384422063827515
-0.41669988632202148 0.51060539484024048 -2.2746601104736328 0.37779086828231812 -0.85159337520599365 0.36340430378913879 156 149 150 0.98663389682769775
-0.33764329552650452 0.47165694832801819 -2.2494628429412842 0.62023365497589111 -0.28997465968132019 0.7288517951965332 169 166 163 0.91735237836837769
-0.32416510581970215 0.46954762935638428 -2.2453317642211914 0.61094045639038086 -0.38146263360977173 0.69371330738067627 169 165 163 0.86828285455703735
-0.29961776733398438 0.47152715921401978 -2.2473537921905518 0.072279304265975952 -0.31657952070236206 0.9458082914352417 171 167 163 0.8486064076423645
-0.27159741520881653 0.46300339698791504 -2.2477240562438965 0.28238335251808167 -0.29710793495178223 0.91213297843933105 169 166 162 0.88799375295639038
-0.26158630847930908 0.47416326403617859 -2.2458875179290771 0.18236804008483887 -0.18398389220237732 0.96586322784423828 170 168 163 0.9098212718963623
-0.24883745610713959 0.46083533763885498 -2.2523033618927002 0.32777780294418335 -0.30625262856483459 0.89373987913131714 174 172 168 0.92378067970275879
-0.23727478086948395 0.47107380628585815 -2.2487266063690186 0.44258642196655273 -0.40166968107223511 0.8017348051071167 176 175 171 0.94158798456192017
-0.21630384027957916 0.46885004639625549 -2.2543079853057861 0.65997761487960815 -0.32525995373725891 0.67722642421722412 176 176 171 0.92995738983154297
-0.20551884174346924 0.46876081824302673 -2.2503182888031006 0.65954792499542236 -0.32422035932540894 0.67814290523529053 176 176 171 0.9091382622718811
-0.089595481753349304 0.48551845550537109 -2.253887414932251 -0.048906251788139343 -0.40529847145080566 0.91287529468536377 179 181 175 0.77477347850799561
0.009363396093249321 0.48997437953948975 -2.2470278739929199 0.12932223081588745 -0.53767192363739014 0.83317744731903076 185 187 182 0.87323927879333496
0.02149491012096405 0.4922657310962677 -2.2620575428009033 0.17993280291557312 -0.44636237621307373 0.87657564878463745 185 187 182 0.74689888954162598
0.090471833944320679 0.47379910945892334 -2.2455639839172363 0.50421673059463501 -0.67449009418487549 0.53928530216217041 184 188 182 0.77292490005493164
0.10271483659744263 0.49565562605857849 -2.2466933727264404 0.57364076375961304 -0.25704127550125122 0.77773147821426392 188 192 186 0.73433816432952881
0.11968884617090225 0.48910814523696899 -2.2554283142089844 0.45006188750267029 -0.57748794555664062 0.68114030361175537 184 188 182 0.85686701536178589
0.13879357278347015 0.49305146932601929 -2.2490234375 -0.14223083853721619 -0.92683422565460205 0.34748923778533936 185 189 184 0.89910751581192017
0.15438450872898102 0.48786500096321106 -2.2568812370300293 -0.10153225064277649 -0.93337869644165039 0.34423154592514038 182 186 180 0.93162626028060913
0.16974017024040222 0.49029821157455444 -2.2480716705322266 0.11055523902177811 -0.90900623798370361 0.40185236930847168 185 190 185 0.94757437705993652
0.18468515574932098 0.48955664038658142 -2.2570593357086182 0.22713549435138702 -0.89032089710235596 0.39463675022125244 182 187 181 0.95161896944046021
0.22503092885017395 0.49465468525886536 -2.2491343021392822 0.21187597513198853 -0.94191360473632812 0.26059049367904663 185 189 185 0.93931430578231812
0.36443904042243958 0.45869326591491699 -2.2241668701171875 0.3667299747467041 -0.28488877415657043 0.88563394546508789 174 181 177 0.92624080181121826
0.39060050249099731 0.46421706676483154 -2.2289867401123047 0.026691857725381851 -0.25298571586608887 0.9671018123626709 174 184 181 0.96450561285018921
0.41721838712692261 0.46554386615753174 -2.2280910015106201 -0.072068370878696442 -0.11550062894821167 0.99068951606750488 202 214 214 0.97524541616439819
0.44097918272018433 0.47000563144683838 -2.2271838188171387 -0.18004423379898071 -0.1975938081741333 0.9636082649230957 204 216 218 0.93650376796722412
0.46858236193656921 0.47808575630187988 -2.2353332042694092 0.27275672554969788 -0.6252819299697876 0.73118150234222412 208 219 217 0.89453917741775513
0.49797216057777405 0.49064183235168457 -2.2346711158752441 0.26387465000152588 -0.88350033760070801 0.38703665137290955 204 214 212 0.89914894104003906
0.51355713605880737 0.48692414164543152 -2.2397761344909668 -0.32003289461135864 -0.42887270450592041 0.84477633237838745 210 219 217 0.94288539886474609
0.52669769525527954 0.48813086748123169 -2.2295742034912109 -0.024243757128715515 -0.88411223888397217 0.46664521098136902 213 223 223 0.90219539403915405
0.54190576076507568 0.4840008020401001 -2.2374775409698486 -0.084758102893829346 -0.40590301156044006 0.90997737646102905 217 227 227 0.91862154006958008
0.56252425909042358 0.46787029504776001 -2.2233066558837891 0.27292430400848389 -0.32886534929275513 0.9040796160697937 217 228 228 0.92914259433746338
0.57741695642471313 0.46481785178184509 -2.2142977714538574 0.073809228837490082 -0.48461943864822388 0.87160557508468628 216 226 228 0.95653218030929565
0.59932523965835571 0.48138216137886047 -2.2287652492523193 0.26400551199913025 -0.32719558477401733 0.90732800960540771 217 228 229 0.93611806631088257
0.61509102582931519 0.49418872594833374 -2.2440431118011475 0.27530589699745178 -0.15474960207939148 0.94881993532180786 222 233 236 0.97060686349868774
0.7290007472038269 0.64435738325119019 -2.3457450866699219 -0.56138193607330322 -0.82644116878509521 -0.042956814169883728 202 213 213 0.92686641216278076
0.74419260025024414 0.6451297402381897 -2.3432774543762207 -0.49417757987976074 -0.86641407012939453 -0.071520984172821045 199 208 208 0.96704214811325073
0.76149880886077881 0.63401687145233154 -2.3290574550628662 -0.47694933414459229 -0.87332117557525635 0.099143564701080322 195 200 203 0.97584772109985352
0.77984476089477539 0.62519794702529907 -2.3167812824249268 -0.37168431282043457 -0.92835241556167603 -0.0035347342491149902 131 124 129 0.97851800918579102
0.82627248764038086 0.61071836948394775 -2.3185534477233887 -0.26272648572921753 -0.93698257207870483 -0.23030088841915131 61 43 48 0.9713166356086731
0.87274032831192017 0.61172264814376831 -2.3107833862304688 -0.33863270282745361 -0.67530965805053711 0.65519827604293823 64 38 34 0.93166106939315796
0.88637030124664307 0.60927629470825195 -2.3179256916046143 -0.6717841625213623 -0.52362453937530518 0.52394974231719971 61 36 32 0.87398320436477661
-0.51185166835784912 0.38688123226165771 -2.2295377254486084 0.29422318935394287 -0.92619484663009644 0.23578754067420959 59 31 24 0.90392708778381348
-0.51049536466598511 0.40879464149475098 -2.2336664199829102 0.7537086009979248 -0.11906027793884277 0.64633423089981079 43 20 14 0.98229467868804932
-0.49602887034416199 0.39539885520935059 -2.222667932510376 0.9300922155380249 -0.31270825862884521 0.19272258877754211 54 26 17 0.94741785526275635
-0.50556254386901855 0.4293275773525238 -2.2513349056243896 0.51208639144897461 -0.16437378525733948 0.84305918216705322 55 28 24 0.97282898426055908
-0.47548466920852661 0.44267207384109497 -2.2687540054321289 0.80876362323760986 -0.23745518922805786 0.5380672812461853 138 125 125 0.99181252717971802
-0.46666762232780457 0.46358227729797363 -2.2681097984313965 0.83507198095321655 -0.3111099898815155 0.45372384786605835 145 132 134 0.98960000276565552
-0.44015559554100037 0.47832593321800232 -2.2761626243591309 0.30217525362968445 -0.55512875318527222 0.77493363618850708 157 151 150 0.98424559831619263
-0.36539271473884583 0.42603775858879089 -2.2456762790679932 0.29438328742980957 -0.30987757444381714 0.90405446290969849 168 164 163 0.87828588485717773
-0.38131064176559448 0.43598648905754089 -2.2537534236907959 0.26686456799507141 -0.28492218255996704 0.92065334320068359 168 165 163 0.88380372524261475
-0.33526164293289185 0.42889153957366943 -2.2576267719268799 0.16565340757369995 0.11004075407981873 0.9800255298614502 169 167 163 0.91551011800765991
-0.30365276336669922 0.4412921667098999 -2.2505691051483154 -0.09749487042427063 -0.060229450464248657 0.99341189861297607 171 169 164 0.90561449527740479
-0.28488922119140625 0.4427092969417572 -2.2533397674560547 0.078846752643585205 -0.38793191313743591 0.91830939054489136 173 171 166 0.86903500556945801
-0.26274147629737854 0.44492349028587341 -2.2566380500793457 0.26669815182685852 -0.3151010274887085 0.91081476211547852 170 168 164 0.92428052425384521
-0.24171164631843567 0.44236424565315247 -2.2621686458587646 0.26334401965141296 -0.34276050329208374 0.90175676345825195 177 176 172 0.94490259885787964
-0.24977307021617889 0.45387125015258789 -2.2516791820526123 0.17499817907810211 -0.43702057003974915 0.8822634220123291 174 172 168 0.91861134767532349
-0.22915357351303101 0.45904374122619629 -2.2592530250549316 0.26127970218658447 -0.35142144560813904 0.89901947975158691 179 178 173 0.93968182802200317
-0.20739604532718658 0.45463800430297852 -2.2646534442901611 0.54762113094329834 -0.37597730755805969 0.74749726057052612 178 178 173 0.93675905466079712
-0.19425806403160095 0.45203036069869995 -2.260444164276123 0.48275443911552429 -0.30535006523132324 0.82079809904098511 177 177 172 0.91472280025482178
-0.13469883799552917 0.45691174268722534 -2.2668304443359375 -0.075092017650604248 -0.31486213207244873 0.94616234302520752 176 177 171 0.80059647560119629
-0.086090341210365295 0.45747575163841248 -2.2656149864196777 0.12392125278711319 -0.72173404693603516 0.68098723888397217 181 182 177 0.7871708869934082
-0.0050613014027476311 0.4658370316028595 -2.2628018856048584 0.25568118691444397 -0.93505263328552246 0.24556812644004822 179 181 176 0.78714674711227417
0.011015366762876511 0.45853886008262634 -2.2653484344482422 -0.11933708190917969 -0.3957664966583252 0.91056442260742188 181 184 178 0.76173096895217896
0.077071681618690491 0.46408912539482117 -2.2468245029449463 0.50210809707641602 -0.7355809211730957 0.454761803150177 186 189 184 0.73835110664367676
0.092392854392528534 0.45419734716415405 -2.2537715435028076 0.69816416501998901 -0.68677771091461182 0.20224547386169434 184 188 182 0.85542112588882446
0.12006644159555435 0.47316589951515198 -2.2664444446563721 0.34628641605377197 -0.75505417585372925 0.55675745010375977 180 182 177 0.83761674165725708
0.10504937171936035 0.47390693426132202 -2.2554752826690674 0.24940109252929688 -0.87686800956726074 0.41097629070281982 185 188 182 0.82110404968261719
0.13359464704990387 0.48795849084854126 -2.2681372165679932 -0.17008861899375916 -0.5790938138961792 0.7973206639289856 178 181 175 0.8710060715675354
0.15251582860946655 0.47847867012023926 -2.2697286605834961 0.23095488548278809 -0.80733609199523926 0.54301786422729492 177 180 175 0.90772056579589844
0.18320435285568237 0.48272949457168579 -2.2732927799224854 0.13911442458629608 -0.78461384773254395 0.604175865650177 172 176 171 0.91588962078094482
0.18282745778560638 0.48267576098442078 -2.2734286785125732 0.14963951706886292 -0.78626567125320435 0.59949523210525513 172 176 171 0.91436725854873657
0.19889841973781586 0.4936281144618988 -2.267463207244873 0.20838601887226105 -0.70135635137557983 0.6816704273223877 175 179 174 0.83249717950820923
0.21801465749740601 0.48350909352302551 -2.2721199989318848 -0.097377151250839233 -0.89392638206481934 0.43750810623168945 172 177 171 0.84649389982223511
0.33381301164627075 0.44903290271759033 -2.2306342124938965 0.34842240810394287 -0.13258284330368042 0.9279136061668396 169 177 171 0.84422862529754639
0.31688609719276428 0.4807722270488739 -2.2561793327331543 0.0085026472806930542 0.076168060302734375 0.99705874919891357 167 175 169 0.86541163921356201
0.37760531902313232 0.44200456142425537 -2.2322721481323242 0.14090217649936676 -0.12388724088668823 0.98224163055419922 193 203 202 0.96537941694259644
0.40186324715614319 0.44279661774635315 -2.2335362434387207 0.015935167670249939 -0.24984696507453918 0.9681541919708252 215 227 227 0.98370617628097534
0.42970496416091919 0.4386347234249115 -2.2333145141601562 0.66733306646347046 -0.42221337556838989 0.61351644992828369 210 222 221 0.94226467609405518
0.45523065328598022 0.46382290124893188 -2.2354283332824707 0.48716023564338684 -0.64656746387481689 0.58704817295074463 208 218 217 0.95276755094528198
0.46997782588005066 0.46221104264259338 -2.2465677261352539 0.41038614511489868 -0.67282932996749878 0.61553555727005005 197 205 201 0.94500052928924561
0.48799899220466614 0.46721461415290833 -2.2510139942169189 0.031456321477890015 -0.48337665200233459 0.8748471736907959 189 200 195 0.94149446487426758
0.50722378492355347 0.47009474039077759 -2.2495369911193848 -0.15790325403213501 -0.42796459794044495 0.88989484310150146 206 217 215 0.94854801893234253
0.52497798204421997 0.47280794382095337 -2.2444138526916504 -0.31748944520950317 -0.33443287014961243 0.88733035326004028 219 229 229 0.9555354118347168
0.55453407764434814 0.47958794236183167 -2.248542308807373 0.20252241194248199 -0.030767828226089478 0.97879409790039062 218 231 231 0.82698118686676025
0.55453407764434814 0.47958794236183167 -2.248542308807373 0.20252241194248199 -0.030767828226089478 0.97879409790039062 218 231 231 0.82698118686676025
0.55453407764434814 0.47958794236183167 -2.248542308807373 0.20252241194248199 -0.030767828226089478 0.97879409790039062 218 231 231 0.82698118686676025
0.59008532762527466 0.47502237558364868 -2.2428281307220459 0.16686977446079254 -0.014977902173995972 0.98586511611938477 219 231 232 0.89296281337738037
0.62704616785049438 0.47020676732063293 -2.2486865520477295 0.29896607995033264 -0.11251881718635559 0.94760686159133911 224 235 236 0.86310005187988281
0.64299172163009644 0.48234379291534424 -2.2422544956207275 0.60156100988388062 -0.69922864437103271 0.38626894354820251 221 234 237 0.96625316143035889
0.67435371875762939 0.47952452301979065 -2.2422893047332764 -0.48405992984771729 -0.87455058097839355 -0.029106020927429199 202 207 210 0.9534725546836853
0.69034671783447266 0.46439281105995178 -2.2272069454193115 -0.067413389682769775 -0.9304313063621521 0.36021244525909424 169 162 160 0.84093594551086426
0.76766467094421387 0.60778814554214478 -2.3369297981262207 -0.21608874201774597 -0.73915648460388184 0.63792896270751953 198 206 202 0.94637256860733032
0.79663544893264771 0.62432706356048584 -2.3353266716003418 -0.21024827659130096 -0.92356270551681519 -0.32066750526428223 183 184 188 0.98093140125274658
0.84948521852493286 0.60681760311126709 -2.3301539421081543 -0.37173837423324585 -0.5673898458480835 0.73476481437683105 53 37 40 0.94711530208587646
0.87458175420761108 0.59913259744644165 -2.3260388374328613 -0.51188737154006958 -0.6607506275177002 0.5489809513092041 63 42 38 0.93776154518127441
-0.51792353391647339 0.38008135557174683 -2.2493219375610352 0.5094948410987854 -0.4773993194103241 0.71589452028274536 43 21 14 0.95887863636016846
-0.50245875120162964 0.39514672756195068 -2.243891716003418 0.85019159317016602 -0.47746172547340393 0.221821129322052 56 26 18 0.98463952541351318
-0.49108466506004333 0.41080862283706665 -2.2617020606994629 0.53114193677902222 -0.1588287353515625 0.83226311206817627 69 46 45 0.98501044511795044
-0.46168959140777588 0.41036111116409302 -2.2678649425506592 0.19127410650253296 -0.040688067674636841 0.98069298267364502 159 152 150 0.98564958572387695
-0.43199682235717773 0.41309109330177307 -2.2704391479492188 -0.37463375926017761 -0.65468668937683105 0.65653246641159058 158 153 150 0.82421028614044189
-0.37585911154747009 0.40718618035316467 -2.2566289901733398 -0.13180246949195862 -0.49187666177749634 0.86063092947006226 171 169 167 0.8644220232963562
-0.35697618126869202 0.40908512473106384 -2.2548081874847412 -0.10361037403345108 -0.44437262415885925 0.88983029127120972 172 170 167 0.88345634937286377
-0.33751830458641052 0.40643024444580078 -2.25201416015625 -0.1193864643573761 -0.63334345817565918 0.76460647583007812 171 169 166 0.86928391456604004
-0.32135733962059021 0.39736050367355347 -2.2555141448974609 -0.18869784474372864 -0.8414117693901062 0.50637871026992798 173 172 168 0.85716170072555542
-0.29590067267417908 0.40832111239433289 -2.2609884738922119 0.35691732168197632 0.054216980934143066 0.93256127834320068 177 176 171 0.90019410848617554
-0.28309175372123718 0.4090326726436615 -2.2628748416900635 0.38689970970153809 -0.28415003418922424 0.87724995613098145 178 177 172 0.91598492860794067
-0.27600127458572388 0.4269983172416687 -2.2614676952362061 0.11976265907287598 -0.39511755108833313 0.91079038381576538 175 174 169 0.91164839267730713
-0.25384980440139771 0.42405295372009277 -2.2651562690734863 0.26275840401649475 -0.39071998000144958 0.88221085071563721 176 175 170 0.93340533971786499
-0.2334408164024353 0.42339521646499634 -2.2705850601196289 0.20739057660102844 -0.40929585695266724 0.8885190486907959 178 178 173 0.94801747798919678
-0.2329225093126297 0.42236855626106262 -2.2708590030670166 0.21411207318305969 -0.40789481997489929 0.88756859302520752 179 178 174 0.94037199020385742
-0.22032196819782257 0.44319549202919006 -2.2686951160430908 0.26991292834281921 -0.30773600935935974 0.9123845100402832 181 181 176 0.92915517091751099
-0.20215092599391937 0.43037182092666626 -2.2752480506896973 0.19901692867279053 -0.5420536994934082 0.81643742322921753 181 181 176 0.89963150024414062
-0.18714514374732971 0.4359869658946991 -2.2683665752410889 -0.16023242473602295 -0.37962210178375244 0.91115999221801758 178 178 173 0.88034683465957642
-0.14335954189300537 0.44368097186088562 -2.2754685878753662 -0.14418599009513855 -0.31514334678649902 0.93802726268768311 177 178 172 0.77107906341552734
-0.12398474663496017 0.44549039006233215 -2.2722489833831787 -0.13781464099884033 -0.33013007044792175 0.93382084369659424 176 177 171 0.82509529590606689
-0.10416935384273529 0.45667633414268494 -2.2716853618621826 0.045699648559093475 -0.5423349142074585 0.83891862630844116 176 177 172 0.74260604381561279
-0.087186768651008606 0.44616210460662842 -2.2767312526702881 0.049649372696876526 -0.7601315975189209 0.64786946773529053 178 179 174 0.82009005546569824
-0.06683792918920517 0.44425657391548157 -2.2727260589599609 0.24102753400802612 -0.59729057550430298 0.76495075225830078 182 183 178 0.77340918779373169
-0.056464947760105133 0.44654789566993713 -2.2799208164215088 -0.052587240934371948 -0.33105581998825073 0.94214475154876709 178 180 175 0.85241472721099854
-0.035572066903114319 0.44523441791534424 -2.277700662612915 0.09084879606962204 -0.3029475212097168 0.94866710901260376 182 184 179 0.92107141017913818
-0.046157572418451309 0.46161416172981262 -2.2719111442565918 0.02322247251868248 -0.60617250204086304 0.794994056224823 180 182 177 0.77712124586105347
-0.023546675220131874 0.45925235748291016 -2.2697899341583252 0.10638197511434555 -0.57996439933776855 0.80766582489013672 182 185 180 0.834023118019104
0.083777032792568207 0.42965239286422729 -2.2463538646697998 0.66189682483673096 -0.74628150463104248 -0.070402711629867554 184 187 182 0.81057757139205933
0.12035175412893295 0.45368719100952148 -2.2765541076660156 0.47435218095779419 -0.62012338638305664 0.62484961748123169 179 182 177 0.82850873470306396
0.10544448345899582 0.46360814571380615 -2.2715535163879395 0.22303205728530884 -0.7808271050453186 0.58358007669448853 181 185 178 0.73198652267456055
0.13640792667865753 0.46619182825088501 -2.2733407020568848 0.19734126329421997 -0.71284079551696777 0.67298930883407593 177 180 175 0.81505149602890015
0.15238349139690399 0.46314159035682678 -2.2829110622406006 0.21995061635971069 -0.708243727684021 0.6708298921585083 180 183 178 0.88290846347808838
0.16845554113388062 0.47455155849456787 -2.2790403366088867 0.31925523281097412 -0.8391801118850708 0.44028714299201965 174 178 172 0.90907537937164307
0.16796746850013733 0.47443076968193054 -2.2790331840515137 0.31513899564743042 -0.82862383127212524 0.46267706155776978 174 178 173 0.91005140542984009
0.19913914799690247 0.47431284189224243 -2.2812256813049316 -0.036101497709751129 -0.72695630788803101 0.68573421239852905 183 187 182 0.80542606115341187
0.30607455968856812 0.37029737234115601 -2.2090842723846436 0.28478142619132996 -0.81346994638442993 0.50711572170257568 185 195 192 0.86605805158615112
0.32452267408370972 0.43690919876098633 -2.2412116527557373 -0.070162229239940643 -0.0050840675830841064 0.99752259254455566 191 200 196 0.87347674369812012
0.34588328003883362 0.42258614301681519 -2.2313096523284912 0.040413945913314819 -0.11223626136779785 0.99285942316055298 184 193 193 0.94517505168914795
0.35086438059806824 0.39662009477615356 -2.2192912101745605 -0.0050417333841323853 -0.40632680058479309 0.91371393203735352 202 212 212 0.90015053749084473
0.36990341544151306 0.418744295835495 -2.2319533824920654 0.13857994973659515 -0.10365033149719238 0.98491227626800537 215 227 227 0.95699316263198853
0.40240836143493652 0.41876250505447388 -2.2361917495727539 0.48834389448165894 -0.67346978187561035 0.55494034290313721 213 225 225 0.85629665851593018
0.44051322340965271 0.441325843334198 -2.2495782375335693 0.69498813152313232 -0.7136421799659729 0.087785929441452026 202 212 208 0.96534442901611328
0.4555819034576416 0.45047369599342346 -2.2485067844390869 0.44838902354240417 -0.57323110103607178 0.68582320213317871 198 207 202 0.93325889110565186
0.47900480031967163 0.44867771863937378 -2.256608247756958 0.25320038199424744 -0.3061213493347168 0.91770327091217041 185 195 189 0.8925585150718689
0.49836480617523193 0.45386755466461182 -2.2589066028594971 -0.021021932363510132 -0.30670130252838135 0.95157366991043091 207 219 218 0.96067678928375244
0.51732581853866577 0.45748826861381531 -2.2580032348632812 -0.20214420557022095 -0.31815236806869507 0.92623800039291382 215 227 227 0.97360926866531372
0.53667360544204712 0.46251076459884644 -2.257112979888916 -0.068648815155029297 -0.18288956582546234 0.98073381185531616 220 231 232 0.90994060039520264
0.5726354718208313 0.44049474596977234 -2.2418882846832275 -0.33711427450180054 -0.08438563346862793 0.93767422437667847 215 228 228 0.90172970294952393
0.60385745763778687 0.45074352622032166 -2.245570182800293 0.16245110332965851 -0.0068683326244354248 0.98669278621673584 223 235 236 0.88015085458755493
0.65323102474212646 0.46592190861701965 -2.2459917068481445 0.23230209946632385 -0.90040278434753418 0.36784571409225464 225 236 237 0.96000254154205322
0.66851574182510376 0.46730181574821472 -2.256737232208252 -0.10186666250228882 -0.79530525207519531 0.59758919477462769 225 234 237 0.93737530708312988
0.69575667381286621 0.47966155409812927 -2.2589428424835205 0.2284247875213623 -0.28128594160079956 0.93204087018966675 208 217 219 0.94792854785919189
0.69738531112670898 0.47804087400436401 -2.2562716007232666 0.27904433012008667 -0.23818081617355347 0.93027102947235107 206 216 217 0.93527990579605103
0.78407412767410278 0.6002734899520874 -2.3428657054901123 -0.15013542771339417 -0.68926757574081421 0.70878034830093384 201 207 203 0.92513704299926758
0.79499316215515137 0.6044079065322876 -2.3573153018951416 -0.45676276087760925 -0.65959012508392334 0.5969160795211792 200 207 204 0.91778016090393066
0.82359439134597778 0.60206562280654907 -2.3535094261169434 -0.39591079950332642 -0.67746365070343018 0.61991751194000244 195 204 203 0.96028167009353638
0.8519059419631958 0.5980115532875061 -2.3442723751068115 -0.53189444541931152 -0.78617507219314575 0.31466978788375854 103 98 103 0.97234117984771729
0.85123258829116821 0.59802091121673584 -2.3443317413330078 -0.6188398003578186 -0.78551721572875977 0.00022388994693756104 106 101 106 0.97724097967147827
0.88732349872589111 0.57552540302276611 -2.332535982131958 -0.5184255838394165 -0.85338687896728516 0.054457381367683411 63 44 43 0.97552847862243652
0.90445178747177124 0.56708294153213501 -2.3240492343902588 -0.52249628305435181 -0.84358882904052734 -0.12391670793294907 58 38 35 0.94859421253204346
-0.50968623161315918 0.36978641152381897 -2.263373851776123 0.53684824705123901 -0.32596296072006226 0.77816587686538696 62 37 32 0.97605627775192261
-0.49913907051086426 0.38881886005401611 -2.2626833915710449 0.57424688339233398 -0.28169739246368408 0.76869183778762817 71 47 44 0.97956353425979614
-0.47235512733459473 0.38782766461372375 -2.2684152126312256 0.11392848193645477 -0.10526135563850403 0.98789691925048828 156 149 148 0.98726773262023926
-0.47885549068450928 0.38978427648544312 -2.2730283737182617 0.42070645093917847 -0.2951396107673645 0.85784542560577393 157 147 147 0.98149675130844116
-0.45114874839782715 0.39115351438522339 -2.2737808227539062 0.1853937953710556 -0.16587990522384644 0.96856242418289185 157 156 152 0.97149908542633057
-0.42559430003166199 0.38314247131347656 -2.2714629173278809 -0.31051447987556458 -0.77232348918914795 0.55416345596313477 161 160 156 0.8870842456817627
-0.39202487468719482 0.3880239725112915 -2.2553856372833252 -0.16176056861877441 -0.41691219806671143 0.89443713426589966 166 163 160 0.85924744606018066
-0.38339993357658386 0.38798278570175171 -2.2650585174560547 0.28107517957687378 -0.82362127304077148 0.49258986115455627 169 167 163 0.86921662092208862
-0.36643680930137634 0.3998437225818634 -2.2645318508148193 -0.1076076477766037 -0.83472734689712524 0.54004734754562378 172 170 167 0.82731813192367554
-0.33945408463478088 0.39509901404380798 -2.2652988433837891 -0.10250428318977356 -0.61310023069381714 0.78332686424255371 176 175 170 0.81349825859069824
-0.31885313987731934 0.39240315556526184 -2.2716245651245117 0.11984400451183319 -0.31629955768585205 0.94105899333953857 180 179 174 0.77387410402297974
-0.26672342419624329 0.40867307782173157 -2.2698512077331543 0.17627260088920593 -0.38615265488624573 0.90543580055236816 177 177 172 0.91696012020111084
-0.24161718785762787 0.41830655932426453 -2.2742843627929688 0.16139170527458191 -0.38905167579650879 0.90696829557418823 176 176 171 0.8965035080909729
-0.22104708850383759 0.41651585698127747 -2.2793474197387695 0.28526720404624939 -0.38325637578964233 0.87848562002182007 183 183 178 0.92700767517089844
-0.21769459545612335 0.41852802038192749 -2.277318000793457 0.15121084451675415 -0.33181041479110718 0.93114829063415527 184 184 179 0.91619265079498291
-0.20165897905826569 0.41507503390312195 -2.2849330902099609 0.29450297355651855 -0.47746387124061584 0.82782614231109619 184 184 179 0.89260637760162354
-0.2021820992231369 0.41557931900024414 -2.2850456237792969 0.35562098026275635 -0.45091450214385986 0.81866335868835449 184 184 179 0.89306432008743286
-0.18597373366355896 0.4176318347454071 -2.2755534648895264 -0.1091444343328476 -0.64983820915222168 0.75219529867172241 179 180 175 0.93870139122009277
-0.1716628223657608 0.41494399309158325 -2.2845668792724609 0.11006283760070801 -0.75360757112503052 0.64804458618164062 179 180 175 0.83525514602661133
-0.15063256025314331 0.41616731882095337 -2.2795710563659668 -0.22349810600280762 -0.63149797916412354 0.74246823787689209 179 180 175 0.78219974040985107
-0.13247530162334442 0.42791703343391418 -2.2799639701843262 -0.16948027908802032 -0.37228631973266602 0.91251266002655029 179 180 175 0.85535752773284912
-0.10273072123527527 0.4353155791759491 -2.2806217670440674 -0.09600532054901123 -0.48891454935073853 0.86703252792358398 178 179 174 0.7726704478263855
-0.054893381893634796 0.4265027642250061 -2.2860989570617676 -0.019513152539730072 -0.34067413210868835 0.9399789571762085 178 180 175 0.87496930360794067
-0.053398054093122482 0.42659640312194824 -2.2859938144683838 -0.036945968866348267 -0.37405672669410706 0.92666959762573242 179 180 175 0.8749082088470459
0.071088962256908417 0.42797040939331055 -2.2703497409820557 0.66538262367248535 -0.74641603231430054 -0.011361390352249146 182 186 181 0.71503949165344238
0.12178689241409302 0.44276967644691467 -2.2899942398071289 0.37739613652229309 -0.68048691749572754 0.62810009717941284 185 189 184 0.86836796998977661
0.1051943376660347 0.45331680774688721 -2.2871139049530029 0.2162366658449173 -0.65090906620025635 0.72770810127258301 179 183 178 0.797069251537323
0.1363837867975235 0.4522138237953186 -2.2864656448364258 0.23350894451141357 -0.68058007955551147 0.69446682929992676 184 188 182 0.88855791091918945
0.1682608425617218 0.45842534303665161 -2.2920377254486084 0.2440713495016098 -0.68248105049133301 0.68894767761230469 188 192 186 0.86786079406738281
0.1826331615447998 0.46581068634986877 -2.2873420715332031 0.093414202332496643 -0.69396984577178955 0.71391844749450684 186 190 184 0.86773926019668579
0.19964143633842468 0.46250569820404053 -2.2958526611328125 -0.051196984946727753 -0.84605711698532104 0.53062820434570312 172 176 170 0.7722170352935791
0.28090187907218933 0.35965830087661743 -2.2151470184326172 0.10567588359117508 -0.83492434024810791 0.54012405872344971 182 190 185 0.86466121673583984
0.3045215904712677 0.36787500977516174 -2.2220234870910645 0.10578735917806625 -0.51764613389968872 0.84902966022491455 186 197 195 0.92840385437011719
0.32540392875671387 0.3720456063747406 -2.2247664928436279 0.31778174638748169 -0.67206990718841553 0.66883224248886108 207 217 217 0.93228912353515625
0.33925002813339233 0.3818075954914093 -2.2221701145172119 0.37447959184646606 -0.48153975605964661 0.79239153861999512 209 218 218 0.89516788721084595
0.35407146811485291 0.37823876738548279 -2.2320196628570557 0.30026820302009583 -0.64506393671035767 0.70266032218933105 214 225 224 0.92703819274902344
0.3693048357963562 0.39039170742034912 -2.2318553924560547 0.40640416741371155 -0.5562126636505127 0.7248883843421936 211 222 222 0.90123367309570312
0.36994308233261108 0.40173634886741638 -2.240900993347168 0.61094701290130615 -0.67436778545379639 0.41469484567642212 209 220 218 0.88492327928543091
0.39479139447212219 0.40168651938438416 -2.2457308769226074 0.57000857591629028 -0.81323301792144775 0.11722740530967712 204 216 213 0.9552762508392334
0.42538678646087646 0.42416667938232422 -2.2482960224151611 0.79504132270812988 -0.57375884056091309 0.19674897193908691 207 218 214 0.95359420776367188
0.45541432499885559 0.43889892101287842 -2.2615289688110352 0.31960058212280273 -0.45798692107200623 0.82952004671096802 177 185 179 0.79625225067138672
0.48778033256530762 0.43104252219200134 -2.2645270824432373 0.16572950780391693 -0.055156707763671875 0.98462766408920288 201 215 214 0.88601392507553101
0.50824695825576782 0.43912312388420105 -2.2677748203277588 -0.37892201542854309 -0.29793411493301392 0.87615835666656494 210 225 227 0.95009160041809082
0.53032130002975464 0.43691074848175049 -2.2595221996307373 -0.45736336708068848 -0.17986971139907837 0.87089931964874268 211 225 228 0.87832719087600708
0.550304114818573 0.43634325265884399 -2.2484450340270996 -0.40912908315658569 -0.13465684652328491 0.90248590707778931 212 226 228 0.94382750988006592
0.58998745679855347 0.42653891444206238 -2.2435019016265869 0.16560180485248566 -0.0030303299427032471 0.98618805408477783 217 230 231 0.88312524557113647
0.61771583557128906 0.42630499601364136 -2.2478766441345215 0.16354075074195862 -0.0047839581966400146 0.98652505874633789 226 237 238 0.86405408382415771
0.63859456777572632 0.44810733199119568 -2.2552704811096191 0.30072501301765442 -0.1112639307975769 0.94719845056533813 226 237 237 0.74817967414855957
0.68617397546768188 0.46930831670761108 -2.27024245262146 0.035228069871664047 -0.30616521835327148 0.95132631063461304 222 231 233 0.97390234470367432
0.7088778018951416 0.47431877255439758 -2.2750470638275146 0.20578256249427795 -0.3378656804561615 0.91842275857925415 212 221 223 0.96859526634216309
0.73148572444915771 0.463613361120224 -2.2770328521728516 -0.23193107545375824 -0.2993086576461792 0.92553895711898804 204 214 213 0.90964746475219727
0.80878192186355591 0.5962790846824646 -2.3624062538146973 -0.49322879314422607 -0.6315608024597168 0.59821093082427979 201 210 206 0.92241942882537842
0.82463061809539795 0.59029537439346313 -2.3693568706512451 -0.624991774559021 -0.55519992113113403 0.54876065254211426 202 210 206 0.94652408361434937
0.83817446231842041 0.59448701143264771 -2.3570775985717773 -0.50077271461486816 -0.63874751329421997 0.58414751291275024 194 202 202 0.97151243686676025
0.8528093695640564 0.58609038591384888 -2.3601875305175781 -0.52703016996383667 -0.65721827745437622 0.53879791498184204 196 202 204 0.97409516572952271
0.88862752914428711 0.57195287942886353 -2.3525712490081787 -0.48443764448165894 -0.87124347686767578 -0.079088717699050903 110 103 109 0.9843597412109375
0.90717846155166626 0.56048333644866943 -2.3412125110626221 -0.43675172328948975 -0.87836295366287231 -0.19423338770866394 60 42 43 0.98139995336532593
0.93466132879257202 0.573192298412323 -2.3500425815582275 -0.34815338253974915 -0.6420828104019165 0.6830219030380249 63 42 38 0.96848702430725098
0.93466132879257202 0.573192298412323 -2.3500425815582275 -0.34815338253974915 -0.6420828104019165 0.6830219030380249 63 42 38 0.96848702430725098
0.93466132879257202 0.573192298412323 -2.3500425815582275 -0.34815338253974915 -0.6420828104019165 0.6830219030380249 63 42 38 0.96848702430725098
-0.5127750039100647 0.31985488533973694 -2.2325339317321777 0.70413804054260254 -0.10562986135482788 0.70216238498687744 42 20 12 0.85708463191986084
-0.51970124244689941 0.34969952702522278 -2.2622275352478027 0.57866072654724121 -0.23805588483810425 0.78005212545394897 55 25 19 0.95425963401794434
-0.46570730209350586 0.37293362617492676 -2.2766671180725098 0.18563413619995117 -0.23735961318016052 0.95351999998092651 156 154 150 0.98346740007400513
-0.43631559610366821 0.36001396179199219 -2.2696664333343506 0.050190150737762451 -0.65771079063415527 0.75159657001495361 160 158 155 0.7971569299697876
-0.39233016967773438 0.36867055296897888 -2.2630879878997803 -0.21591223776340485 -0.89474433660507202 0.39091494679450989 170 168 164 0.77672141790390015
-0.37362200021743774 0.35233104228973389 -2.2673442363739014 0.30610877275466919 -0.57030344009399414 0.76226729154586792 170 169 164 0.77279180288314819
-0.34884428977966309 0.36439630389213562 -2.2745413780212402 0.076522871851921082 -0.30169600248336792 0.95032823085784912 174 172 167 0.86351704597473145
-0.31129515171051025 0.35508069396018982 -2.2702851295471191 0.050956964492797852 -0.61792302131652832 0.78458565473556519 178 178 172 0.85531073808670044
-0.29572594165802002 0.37473130226135254 -2.2732560634613037 0.47254720330238342 -0.71119600534439087 0.52047991752624512 178 176 171 0.78317171335220337
-0.2774684727191925 0.39201247692108154 -2.274101734161377 0.23873184621334076 -0.47987338900566101 0.84423261880874634 178 177 172 0.83729290962219238
-0.2583790123462677 0.39291420578956604 -2.2786567211151123 0.14801356196403503 -0.4022793173789978 0.90347301959991455 178 178 173 0.88469916582107544
-0.23329059779644012 0.39967286586761475 -2.2828187942504883 0.17418861389160156 -0.4513581395149231 0.87517660856246948 183 183 178 0.88299870491027832
-0.18573607504367828 0.40357041358947754 -2.2863504886627197 0.0078443586826324463 -0.66699445247650146 0.74502146244049072 182 183 178 0.91359269618988037
-0.20129859447479248 0.40018761157989502 -2.2921788692474365 0.17451927065849304 -0.57923823595046997 0.7962576150894165 185 186 181 0.85496610403060913
-0.1715422123670578 0.4013538658618927 -2.2957937717437744 0.3676057755947113 -0.75334900617599487 0.54528093338012695 179 180 174 0.86356830596923828
-0.12229745835065842 0.40264591574668884 -2.2910399436950684 -0.35992753505706787 -0.42174023389816284 0.83221828937530518 177 179 173 0.85152935981750488
-0.14107657968997955 0.4146474301815033 -2.2886168956756592 -0.10512150079011917 -0.44460201263427734 0.8895384669303894 181 182 177 0.79561078548431396
-0.017468878999352455 0.41355189681053162 -2.2965011596679688 0.11073710024356842 -0.64336740970611572 0.75750619173049927 182 184 179 0.73482358455657959
0.059902757406234741 0.43615901470184326 -2.2932195663452148 -0.060040272772312164 -0.47882038354873657 0.87585747241973877 180 183 177 0.84916967153549194
0.075558945536613464 0.42404818534851074 -2.2934310436248779 -0.21462695300579071 -0.56202703714370728 0.79878717660903931 185 188 182 0.94018346071243286
0.094828076660633087 0.42529210448265076 -2.2930290699005127 -0.22922708094120026 -0.2998141348361969 0.92604881525039673 180 183 178 0.85433351993560791
0.12178012728691101 0.42730984091758728 -2.300527811050415 0.50430411100387573 -0.69432532787322998 0.51340997219085693 188 191 185 0.87736320495605469
0.13625173270702362 0.43810698390007019 -2.3002386093139648 0.39382338523864746 -0.71740353107452393 0.57466113567352295 175 178 172 0.91186827421188354
0.14725351333618164 0.44501334428787231 -2.2998120784759521 0.032671213150024414 -0.63889396190643311 0.76860076189041138 177 180 174 0.87263822555541992
0.18381483852863312 0.45128372311592102 -2.3007266521453857 -0.11404746770858765 -0.65216779708862305 0.74944674968719482 178 182 177 0.78842604160308838
0.27350157499313354 0.34805876016616821 -2.2309200763702393 0.086279198527336121 -0.61288148164749146 0.785450279712677 176 183 178 0.91264361143112183
0.30452293157577515 0.35253456234931946 -2.2324702739715576 0.19737815856933594 -0.54542809724807739 0.81458580493927002 208 218 218 0.95876634120941162
0.2887367308139801 0.36084824800491333 -2.2265818119049072 0.037890329957008362 -0.42458176612854004 0.90459650754928589 182 190 186 0.92153030633926392
0.3191913366317749 0.35936379432678223 -2.2411553859710693 0.2138027548789978 -0.2926936149597168 0.93199723958969116 216 227 227 0.96802616119384766
0.34889185428619385 0.37126860022544861 -2.2501199245452881 0.60961073637008667 -0.75873243808746338 0.22956401109695435 197 208 203 0.9807770848274231
0.3392307460308075 0.36879894137382507 -2.2341823577880859 0.4160371720790863 -0.64881640672683716 0.63714230060577393 218 230 229 0.9461899995803833
0.36403274536132812 0.38338130712509155 -2.2500753402709961 0.61539745330810547 -0.7591741681098938 0.2119918167591095 197 208 203 0.97737616300582886
0.37917828559875488 0.39345854520797729 -2.2482047080993652 0.57084757089614868 -0.79924166202545166 0.18800491094589233 202 214 210 0.97155898809432983
0.38811451196670532 0.38154026865959167 -2.2523519992828369 0.55975264310836792 -0.82793986797332764 0.034532040357589722 199 210 204 0.94323849678039551
0.42029094696044922 0.4137938916683197 -2.2719748020172119 0.79051339626312256 -0.59988027811050415 0.12341922521591187 198 207 201 0.88907808065414429
0.44020611047744751 0.41696053743362427 -2.2657763957977295 0.33701539039611816 -0.44998618960380554 0.82700246572494507 182 189 182 0.74320733547210693
0.52165865898132324 0.41701900959014893 -2.2676854133605957 -0.45817190408706665 -0.17880105972290039 0.87069427967071533 202 218 220 0.96916139125823975
0.53568810224533081 0.40425208210945129 -2.2470674514770508 -0.45663079619407654 -0.17773017287254333 0.87172257900238037 204 219 222 0.96739363670349121
0.56898969411849976 0.36980658769607544 -2.2362253665924072 -0.50727850198745728 -0.21924938261508942 0.83342564105987549 211 227 230 0.92693787813186646
0.58796530961990356 0.38233354687690735 -2.2359344959259033 -0.31569331884384155 -0.052437037229537964 0.94741123914718628 221 234 236 0.93167960643768311
0.61567384004592896 0.40250816941261292 -2.2441763877868652 -0.15417295694351196 0.041552484035491943 0.98716968297958374 228 238 240 0.82476818561553955
0.70035386085510254 0.46926233172416687 -2.2908172607421875 0.11117875576019287 -0.3018798828125 0.94684100151062012 222 232 231 0.95643484592437744
0.73276925086975098 0.45301613211631775 -2.2922258377075195 0.28186839818954468 -0.50873672962188721 0.8134722113609314 212 223 223 0.9421457052230835
0.71682441234588623 0.46029660105705261 -2.2842147350311279 0.20296761393547058 -0.31632053852081299 0.92668521404266357 216 227 227 0.95010775327682495
0.75065070390701294 0.47113436460494995 -2.2969944477081299 0.28734758496284485 -0.3267495334148407 0.90037000179290771 203 213 211 0.88920563459396362
0.83834880590438843 0.56855028867721558 -2.3605785369873047 -0.26407387852668762 -0.49180513620376587 0.82969439029693604 202 210 206 0.95023810863494873
0.85517662763595581 0.55965584516525269 -2.3646550178527832 -0.21766769886016846 -0.571358323097229 0.79130935668945312 203 211 207 0.96826684474945068
0.87077021598815918 0.57268524169921875 -2.3608899116516113 -0.33083119988441467 -0.68546140193939209 0.64860880374908447 197 201 203 0.98033821582794189
0.90466171503067017 0.56399303674697876 -2.3584058284759521 -0.33640950918197632 -0.93972140550613403 0.061256185173988342 102 94 101 0.98551207780838013
0.92207366228103638 0.55929148197174072 -2.3447561264038086 -0.43934932351112366 -0.89793920516967773 0.026026368141174316 62 42 42 0.98101747035980225
0.95413142442703247 0.56553399562835693 -2.3497934341430664 -0.71191954612731934 -0.48876526951789856 0.50426101684570312 66 42 38 0.93516081571578979
0.98514443635940552 0.56852394342422485 -2.3592712879180908 -0.7237393856048584 -0.29607701301574707 0.6233295202255249 75 47 42 0.90846765041351318
-0.51828539371490479 0.2881464958190918 -2.2460911273956299 0.58090829849243164 -0.23661968111991882 0.77881753444671631 50 27 22 0.75177359580993652
-0.51886993646621704 0.31856158375740051 -2.2539844512939453 0.57977622747421265 -0.23753666877746582 0.77938175201416016 53 27 19 0.85263293981552124
-0.51112115383148193 0.34781342744827271 -2.2810666561126709 0.31570670008659363 -0.38780751824378967 0.86598777770996094 71 50 48 0.96889132261276245
-0.50187993049621582 0.33824679255485535 -2.2891061305999756 -0.0779537633061409 -0.47101670503616333 0.87867319583892822 125 109 110 0.96510154008865356
-0.48995625972747803 0.35296604037284851 -2.2832167148590088 0.65646034479141235 -0.27287045121192932 0.70327913761138916 153 142 143 0.96784096956253052
-0.43644031882286072 0.34429648518562317 -2.2730553150177002 0.14097224175930023 -0.2783358097076416 0.95008206367492676 160 158 154 0.88797914981842041
-0.45109915733337402 0.33425703644752502 -2.2748394012451172 0.15518335998058319 -0.27181753516197205 0.94975435733795166 157 154 151 0.92101246118545532
-0.41898608207702637 0.34582507610321045 -2.2701725959777832 -0.070155888795852661 -0.36557066440582275 0.92813587188720703 165 162 158 0.83537709712982178
-0.41897651553153992 0.33241724967956543 -2.2751061916351318 0.2275555282831192 -0.61951059103012085 0.75128227472305298 166 163 159 0.93456393480300903
